# .PCD v0.7 - Point Cloud Data file format
VERSION 0.7
FIELDS x y z rgb
SIZE 4 4 4 4
TYPE F F F F
COUNT 1 1 1 1
WIDTH 950
HEIGHT 1
VIEWPOINT 0 0 0 1 0 0 0
POINTS 950
DATA ascii
0.51913387 -0.32437101 0.62263966 1.8216778e-38
0.52093345 -0.32831794 0.62562817 1.8216778e-38
0.51881748 -0.31541607 0.62405092 1.8216778e-38
0.51892954 -0.30451134 0.62599218 1.8216778e-38
0.52006686 -0.30134934 0.62184656 1.8216778e-38
0.53092647 -0.30609322 0.6258617 1.8216778e-38
0.51956272 -0.29667678 0.62717986 1.8216778e-38
0.52054334 -0.29432029 0.62449348 1.8216778e-38
0.52117467 -0.28536364 0.62582672 1.8216778e-38
0.52250111 -0.27540228 0.62596047 1.8216778e-38
0.52393121 -0.26461565 0.62524694 1.8216778e-38
0.52559477 -0.25461638 0.62552768 1.8216778e-38
0.52697051 -0.24507701 0.62539983 1.8216778e-38
0.52819622 -0.23505415 0.62560034 1.8216778e-38
0.52917045 -0.22635195 0.62610477 1.8216778e-38
0.53065062 -0.22332422 0.62213224 1.8216778e-38
0.52977234 -0.21933378 0.62809736 1.8216778e-38
0.53075379 -0.2148632 0.6265884 1.8216778e-38
0.53188592 -0.20447767 0.62638211 1.8216778e-38
0.53332835 -0.19461864 0.6254102 1.8216778e-38
0.53525633 -0.18491703 0.62497985 1.8216778e-38
0.53802311 -0.17489617 0.62525278 1.8216778e-38
0.53984571 -0.16949295 0.62560886 1.8216778e-38
0.54184419 -0.16445303 0.62501907 1.8216778e-38
0.55582577 -0.16109876 0.62264365 1.8216778e-38
0.56352705 -0.16302234 0.62317657 1.8216778e-38
0.57145262 -0.16494124 0.62144184 1.8216778e-38
0.54532319 -0.15895039 0.62290931 1.8216778e-38
0.55279386 -0.15951611 0.62072086 1.8216778e-38
0.52362311 -0.33064568 0.63060528 1.8216778e-38
0.51729357 -0.32303837 0.63735479 1.8216778e-38
0.52232611 -0.32983387 0.63805616 1.8216778e-38
0.51657468 -0.31465033 0.63627034 1.8216778e-38
0.51860744 -0.30508772 0.63485181 1.8216778e-38
0.52025795 -0.30048692 0.63832796 1.8216778e-38
0.51982135 -0.29749373 0.63064635 1.8216778e-38
0.52115172 -0.29466441 0.63537145 1.8216778e-38
0.52250957 -0.28497714 0.63493145 1.8216778e-38
0.52390367 -0.27475148 0.63498014 1.8216778e-38
0.5198344 -0.26567253 0.63578194 1.8216778e-38
0.52513683 -0.26509997 0.63486284 1.8216778e-38
0.52654976 -0.25512382 0.6350053 1.8216778e-38
0.52792567 -0.24472584 0.63532084 1.8216778e-38
0.52869308 -0.23528716 0.6350174 1.8216778e-38
0.52953345 -0.22546023 0.63423508 1.8216778e-38
0.53268903 -0.22345583 0.63635707 1.8216778e-38
0.52999336 -0.21911629 0.63241881 1.8216778e-38
0.53073972 -0.21469365 0.63571632 1.8216778e-38
0.53200048 -0.20511751 0.63493788 1.8216778e-38
0.5336327 -0.1950741 0.63505447 1.8216778e-38
0.53596461 -0.18506216 0.6350866 1.8216778e-38
0.53845179 -0.17545553 0.63497716 1.8216778e-38
0.54030567 -0.17061555 0.63697475 1.8216778e-38
0.54228365 -0.16486202 0.63509405 1.8216778e-38
0.54440987 -0.1595692 0.63531154 1.8216778e-38
0.51818448 -0.32220984 0.64410377 1.8216778e-38
0.52050978 -0.32701403 0.64253861 1.8216778e-38
0.51762921 -0.3140395 0.64529413 1.8216778e-38
0.51920968 -0.30709854 0.64397746 1.8216778e-38
0.52074599 -0.30288014 0.64599758 1.8216778e-38
0.51646906 -0.29215297 0.64183086 1.8216778e-38
0.52257574 -0.2949751 0.64497328 1.8216778e-38
0.5241881 -0.28497526 0.6449942 1.8216778e-38
0.52518624 -0.27496904 0.6449604 1.8216778e-38
0.52643883 -0.26499522 0.6448822 1.8216778e-38
0.52782446 -0.25517812 0.645114 1.8216778e-38
0.52915245 -0.24527569 0.64533114 1.8216778e-38
0.52963746 -0.23572181 0.64267594 1.8216778e-38
0.53040934 -0.23436196 0.64710939 1.8216778e-38
0.5299049 -0.22715431 0.64082056 1.8216778e-38
0.5307678 -0.22482841 0.64551091 1.8216778e-38
0.53145069 -0.21516606 0.64538056 1.8216778e-38
0.53264838 -0.20489842 0.64478618 1.8216778e-38
0.53458005 -0.19504179 0.64475739 1.8216778e-38
0.53670055 -0.18501444 0.64479518 1.8216778e-38
0.53846413 -0.17666174 0.64471865 1.8216778e-38
0.54082316 -0.17216356 0.64552736 1.8216778e-38
0.54376751 -0.16486593 0.64464563 1.8216778e-38
0.55199653 -0.16132399 0.64254951 1.8216778e-38
0.54578841 -0.15952483 0.64296007 1.8216778e-38
0.51831412 -0.32378227 0.65267968 1.8216778e-38
0.52091837 -0.32448801 0.65668738 1.8216778e-38
0.51881844 -0.31611416 0.65135074 1.8216778e-38
0.52127343 -0.31474087 0.65512836 1.8216778e-38
0.51945096 -0.3098399 0.65043586 1.8216778e-38
0.52173084 -0.30519909 0.65427935 1.8216778e-38
0.52377141 -0.29506683 0.65501165 1.8216778e-38
0.52530849 -0.28473744 0.65516239 1.8216778e-38
0.52631456 -0.27526104 0.65494359 1.8216778e-38
0.52753025 -0.26514715 0.65520918 1.8216778e-38
0.52882898 -0.25484151 0.65473992 1.8216778e-38
0.53002632 -0.25041366 0.65955204 1.8216778e-38
0.52962261 -0.24760638 0.65328139 1.8216778e-38
0.53037244 -0.24392465 0.65609717 1.8216778e-38
0.52615809 -0.23754054 0.65454143 1.8216778e-38
0.53128934 -0.23490302 0.65493137 1.8216778e-38
0.53229749 -0.22490698 0.65503252 1.8216778e-38
0.53304803 -0.21498378 0.65556812 1.8216778e-38
0.53359669 -0.20518643 0.65481853 1.8216778e-38
0.53494173 -0.19476984 0.6552521 1.8216778e-38
0.53707737 -0.18485646 0.65496045 1.8216778e-38
0.53928679 -0.17789519 0.65511292 1.8216778e-38
0.54095387 -0.17300574 0.65504116 1.8216778e-38
0.54416353 -0.16462052 0.65483099 1.8216778e-38
0.54901874 -0.15899757 0.6560266 1.8216778e-38
0.55233449 -0.15704273 0.65820241 1.8216778e-38
0.5226168 -0.33046186 0.66464889 1.8216778e-38
0.51962185 -0.32420161 0.66606617 1.8216778e-38
0.52244318 -0.32960337 0.66753203 1.8216778e-38
0.51981312 -0.3161771 0.66486025 1.8216778e-38
0.52013129 -0.3133572 0.66749221 1.8216778e-38
0.51989853 -0.30897591 0.66319555 1.8216778e-38
0.52134621 -0.30426869 0.66552061 1.8216778e-38
0.52411854 -0.29517668 0.66526258 1.8216778e-38
0.52650166 -0.28533044 0.66500407 1.8216778e-38
0.52766293 -0.27475387 0.66467541 1.8216778e-38
0.52882218 -0.2652244 0.66515166 1.8216778e-38
0.52960175 -0.257166 0.66332382 1.8216778e-38
0.53045893 -0.25319964 0.66641772 1.8216778e-38
0.52496725 -0.24888423 0.66512537 1.8216778e-38
0.53141636 -0.24469641 0.66492069 1.8216778e-38
0.53257436 -0.23510408 0.66509819 1.8216778e-38
0.53369415 -0.22500542 0.66496366 1.8216778e-38
0.53472823 -0.21499793 0.66538149 1.8216778e-38
0.53525949 -0.20503964 0.66528064 1.8216778e-38
0.53603745 -0.19525065 0.66505432 1.8216778e-38
0.53811234 -0.18490478 0.6642524 1.8216778e-38
0.53957635 -0.17873643 0.66532308 1.8216778e-38
0.5411877 -0.17366795 0.66521591 1.8216778e-38
0.54463089 -0.16494779 0.66537303 1.8216778e-38
0.54905015 -0.15857695 0.66622353 1.8216778e-38
0.55395472 -0.1570681 0.66363591 1.8216778e-38
0.56238168 -0.15817679 0.66467172 1.8216778e-38
0.51990223 -0.32428384 0.67162263 1.8216778e-38
0.5206151 -0.32388473 0.67618495 1.8216778e-38
0.52033287 -0.31505039 0.67450929 1.8216778e-38
0.52178353 -0.30498335 0.6747821 1.8216778e-38
0.52478272 -0.29487079 0.6749143 1.8216778e-38
0.52732593 -0.28515223 0.67490143 1.8216778e-38
0.52862942 -0.27524292 0.67511946 1.8216778e-38
0.52952719 -0.26615989 0.6734013 1.8216778e-38
0.53037018 -0.26280895 0.67688465 1.8216778e-38
0.53115046 -0.25512007 0.67498499 1.8216778e-38
0.53254193 -0.2453865 0.67489487 1.8216778e-38
0.53406537 -0.23497276 0.67491555 1.8216778e-38
0.53542703 -0.22484502 0.67496955 1.8216778e-38
0.52536553 -0.21255572 0.67572993 1.8216778e-38
0.53629929 -0.21520598 0.67480874 1.8216778e-38
0.52466941 -0.20690444 0.67493111 1.8216778e-38
0.53686523 -0.20512167 0.67490041 1.8216778e-38
0.53753203 -0.19482282 0.67540985 1.8216778e-38
0.53838462 -0.18526222 0.67451823 1.8216778e-38
0.54039121 -0.18338561 0.67749715 1.8216778e-38
0.53964913 -0.17911801 0.67134356 1.8216778e-38
0.54236889 -0.17501187 0.67543793 1.8216778e-38
0.54664207 -0.16511786 0.67512763 1.8216778e-38
0.54946953 -0.15878075 0.67510897 1.8216778e-38
0.55045938 -0.15676109 0.67586899 1.8216778e-38
0.52452797 -0.33061913 0.68540543 1.8216778e-38
0.52285796 -0.32470036 0.68423849 1.8216778e-38
0.52095133 -0.31501359 0.68425453 1.8216778e-38
0.52184981 -0.3049891 0.68530697 1.8216778e-38
0.52497715 -0.29513612 0.68494499 1.8216778e-38
0.52795881 -0.28504926 0.68502825 1.8216778e-38
0.5294165 -0.27567086 0.6848399 1.8216778e-38
0.53009856 -0.27102381 0.68615723 1.8216778e-38
0.54073071 -0.27225661 0.68849111 1.8216778e-38
0.52998626 -0.26920956 0.68054658 1.8216778e-38
0.53083915 -0.26506856 0.68548673 1.8216778e-38
0.53210604 -0.25484386 0.68479079 1.8216778e-38
0.5335924 -0.2447858 0.68507653 1.8216778e-38
0.53505129 -0.23525225 0.68494421 1.8216778e-38
0.53658038 -0.22532186 0.68496585 1.8216778e-38
0.53786504 -0.21468623 0.68508208 1.8216778e-38
0.53832918 -0.20500176 0.68463308 1.8216778e-38
0.53887063 -0.19537202 0.6849981 1.8216778e-38
0.53935575 -0.18687487 0.68410325 1.8216778e-38
0.54045379 -0.18273677 0.686634 1.8216778e-38
0.54222888 -0.17517978 0.68582493 1.8216778e-38
0.54532337 -0.16498202 0.6868068 1.8216778e-38
0.5487057 -0.15858328 0.68494743 1.8216778e-38
0.55393761 -0.1565731 0.6862058 1.8216778e-38
0.52201295 -0.32397994 0.6954909 1.8216778e-38
0.52132106 -0.31441596 0.69532096 1.8216778e-38
0.52321094 -0.30483145 0.69472706 1.8216778e-38
0.52596068 -0.29487336 0.69484502 1.8216778e-38
0.52858025 -0.28495499 0.6949122 1.8216778e-38
0.52969444 -0.27764165 0.69272792 1.8216778e-38
0.53067076 -0.27381012 0.6957581 1.8216778e-38
0.53186417 -0.2647627 0.69506556 1.8216778e-38
0.53317451 -0.2552042 0.69494891 1.8216778e-38
0.53460139 -0.2450882 0.69501877 1.8216778e-38
0.53603774 -0.23469752 0.6950115 1.8216778e-38
0.53735858 -0.22485988 0.69503736 1.8216778e-38
0.53865451 -0.21535143 0.69536859 1.8216778e-38
0.52832043 -0.202437 0.69038957 1.8216778e-38
0.53951246 -0.20590007 0.69342089 1.8216778e-38
0.54033726 -0.20306934 0.69746631 1.8216778e-38
0.53978467 -0.19621409 0.69104987 1.8216778e-38
0.54066688 -0.19474389 0.69580626 1.8216778e-38
0.54136854 -0.18491596 0.69503343 1.8216778e-38
0.55014318 -0.18747458 0.69990468 1.8216778e-38
0.54372752 -0.1749482 0.69435453 1.8216778e-38
0.54734337 -0.1648768 0.69378626 1.8216778e-38
0.5495221 -0.15942134 0.69456029 1.8216778e-38
0.55161351 -0.15783559 0.69606227 1.8216778e-38
0.56428671 -0.15806094 0.69049835 1.8216778e-38
0.52661997 -0.33022285 0.70771754 1.8216778e-38
0.52301943 -0.32458785 0.70550656 1.8216778e-38
0.52275968 -0.315173 0.70539814 1.8216778e-38
0.52393508 -0.30506414 0.7049312 1.8216778e-38
0.52648509 -0.29506695 0.7049821 1.8216778e-38
0.52864045 -0.28583074 0.70460284 1.8216778e-38
0.5316416 -0.28232557 0.70663345 1.8216778e-38
0.5315392 -0.27518088 0.70500708 1.8216778e-38
0.53324741 -0.26514858 0.70505226 1.8216778e-38
0.53463173 -0.25510216 0.70479536 1.8216778e-38
0.53601426 -0.24494389 0.70517457 1.8216778e-38
0.537085 -0.2352187 0.7047931 1.8216778e-38
0.53828561 -0.22510549 0.7050131 1.8216778e-38
0.5393554 -0.21572071 0.70434654 1.8216778e-38
0.54126215 -0.2118223 0.70810825 1.8216778e-38
0.53989786 -0.20937319 0.70113468 1.8216778e-38
0.54084897 -0.2047911 0.70504385 1.8216778e-38
0.54202068 -0.19496906 0.70500231 1.8216778e-38
0.54357946 -0.18480726 0.70514607 1.8216778e-38
0.54558444 -0.17490964 0.70503181 1.8216778e-38
0.54768842 -0.16514888 0.70485634 1.8216778e-38
0.55039942 -0.16094261 0.70730931 1.8216778e-38
0.55489671 -0.15749364 0.7055558 1.8216778e-38
0.56032956 -0.1548494 0.70906484 1.8216778e-38
0.52892572 -0.33119369 0.71207124 1.8216778e-38
0.5332275 -0.33358186 0.71608663 1.8216778e-38
0.52469611 -0.32418147 0.71422166 1.8216778e-38
0.5306294 -0.32954305 0.71959972 1.8216778e-38
0.52421552 -0.3146798 0.715464 1.8216778e-38
0.52536041 -0.30499506 0.71468371 1.8216778e-38
0.52763838 -0.29497465 0.71508616 1.8216778e-38
0.53606403 -0.2921285 0.71154517 1.8216778e-38
0.52939886 -0.28770277 0.71407074 1.8216778e-38
0.53075206 -0.28311613 0.71543527 1.8216778e-38
0.53241783 -0.27522445 0.71508801 1.8216778e-38
0.53436232 -0.26513457 0.7150268 1.8216778e-38
0.53587472 -0.25474796 0.71501559 1.8216778e-38
0.53708225 -0.24508604 0.71498758 1.8216778e-38
0.5382818 -0.23515704 0.71481854 1.8216778e-38
0.5393883 -0.22552028 0.71443903 1.8216778e-38
0.54020798 -0.22197615 0.71813232 1.8216778e-38
0.53987169 -0.21808949 0.71119481 1.8216778e-38
0.54083091 -0.21459977 0.71558726 1.8216778e-38
0.53258461 -0.20931052 0.71202064 1.8216778e-38
0.54188472 -0.20510887 0.71490204 1.8216778e-38
0.5430494 -0.19482689 0.71536863 1.8216778e-38
0.54419136 -0.18546411 0.71542048 1.8216778e-38
0.54724765 -0.1752423 0.71445853 1.8216778e-38
0.54935569 -0.16758403 0.71386331 1.8216778e-38
0.55168438 -0.1631832 0.71430421 1.8216778e-38
0.556238 -0.15833178 0.7136125 1.8216778e-38
0.56378251 -0.15680391 0.71362311 1.8216778e-38
0.5357278 -0.33434081 0.72155899 1.8216778e-38
0.52565014 -0.32300791 0.72549188 1.8216778e-38
0.52531308 -0.31542945 0.72520494 1.8216778e-38
0.51835203 -0.30756834 0.72958291 1.8216778e-38
0.5267359 -0.30501547 0.72496825 1.8216778e-38
0.52875054 -0.29560965 0.72471201 1.8216778e-38
0.53020847 -0.29163083 0.72828841 1.8216778e-38
0.5298757 -0.28923473 0.72136766 1.8216778e-38
0.53146636 -0.28468791 0.72519088 1.8216778e-38
0.53351456 -0.27467635 0.72504658 1.8216778e-38
0.53537691 -0.26476935 0.72522151 1.8216778e-38
0.53677708 -0.25495699 0.72502023 1.8216778e-38
0.53803205 -0.24508397 0.72478294 1.8216778e-38
0.5392803 -0.23542938 0.72464818 1.8216778e-38
0.54019648 -0.23225908 0.72831082 1.8216778e-38
0.53971046 -0.22838612 0.7209425 1.8216778e-38
0.54086769 -0.22443865 0.72557539 1.8216778e-38
0.54200959 -0.2149858 0.72475284 1.8216778e-38
0.54332292 -0.20501791 0.72515172 1.8216778e-38
0.54431313 -0.19512339 0.72486454 1.8216778e-38
0.54519421 -0.18510504 0.72518343 1.8216778e-38
0.54665679 -0.17466548 0.7251085 1.8216778e-38
0.54822159 -0.16681366 0.72364789 1.8216778e-38
0.55271125 -0.1639231 0.72579783 1.8216778e-38
0.55737484 -0.15870246 0.72383177 1.8216778e-38
0.56228232 -0.15620245 0.72749084 1.8216778e-38
0.57537025 -0.15482874 0.72471142 1.8216778e-38
0.53354973 -0.33253783 0.73734707 1.8216778e-38
0.54035145 -0.33760464 0.73834044 1.8216778e-38
0.52782255 -0.32429045 0.73472065 1.8216778e-38
0.52741832 -0.31498456 0.73501754 1.8216778e-38
0.52811712 -0.30495203 0.73496151 1.8216778e-38
0.5294866 -0.29725328 0.73485273 1.8216778e-38
0.53053218 -0.29254559 0.73576772 1.8216778e-38
0.53214818 -0.28499591 0.73506927 1.8216778e-38
0.53414392 -0.27514246 0.73483557 1.8216778e-38
0.53566253 -0.26515728 0.73532283 1.8216778e-38
0.53718501 -0.25487861 0.73495811 1.8216778e-38
0.53888619 -0.24454162 0.7347787 1.8216778e-38
0.53915441 -0.23872936 0.73477185 1.8216778e-38
0.54069638 -0.23354025 0.73528534 1.8216778e-38
0.54176956 -0.22513138 0.73485982 1.8216778e-38
0.54303688 -0.21486256 0.7349149 1.8216778e-38
0.544276 -0.20474251 0.73526615 1.8216778e-38
0.54532522 -0.1953136 0.7349 1.8216778e-38
0.54645711 -0.18482912 0.73544407 1.8216778e-38
0.54790455 -0.17552145 0.73457587 1.8216778e-38
0.55106103 -0.1719631 0.73837686 1.8216778e-38
0.54946673 -0.16950071 0.73312664 1.8216778e-38
0.5537318 -0.16481468 0.73650253 1.8216778e-38
0.56743801 -0.16807218 0.73603863 1.8216778e-38
0.55718082 -0.15872164 0.73529118 1.8216778e-38
0.56491482 -0.15711215 0.73324108 1.8216778e-38
0.57121605 -0.15663666 0.73361111 1.8216778e-38
0.53504497 -0.3333182 0.74867558 1.8216778e-38
0.52860326 -0.32367989 0.74528641 1.8216778e-38
0.53098679 -0.32908344 0.74573374 1.8216778e-38
0.56759524 -0.32720119 0.74900377 1.8216778e-38
0.57199293 -0.32213122 0.74743694 1.8216778e-38
0.52917945 -0.31508416 0.74493551 1.8216778e-38
0.53010541 -0.31071162 0.74855709 1.8216778e-38
0.57414037 -0.31148863 0.74959457 1.8216778e-38
0.52954429 -0.30598345 0.74230283 1.8216778e-38
0.53049481 -0.30401245 0.74715459 1.8216778e-38
0.57684368 -0.30329382 0.74884325 1.8216778e-38
0.53137225 -0.29491282 0.74492991 1.8216778e-38
0.53311574 -0.28517324 0.74473512 1.8216778e-38
0.5347659 -0.27514875 0.74518263 1.8216778e-38
0.53592843 -0.26501542 0.7452808 1.8216778e-38
0.58277863 -0.26183379 0.74908704 1.8216778e-38
0.53734547 -0.2551232 0.74518609 1.8216778e-38
0.58201754 -0.25838047 0.74993271 1.8216778e-38
0.53899115 -0.24542713 0.74485362 1.8216778e-38
0.54020548 -0.24103472 0.74894917 1.8216778e-38
0.53986186 -0.23940915 0.74243236 1.8216778e-38
0.54090661 -0.23490097 0.74541008 1.8216778e-38
0.54264534 -0.2249928 0.74523062 1.8216778e-38
0.58840942 -0.22830468 0.74973249 1.8216778e-38
0.54408473 -0.21526828 0.74525142 1.8216778e-38
0.59106064 -0.21660638 0.74911296 1.8216778e-38
0.54552966 -0.20529573 0.74530643 1.8216778e-38
0.59334159 -0.20313928 0.74891007 1.8216778e-38
0.54678047 -0.1947988 0.7450707 1.8216778e-38
0.56241661 -0.1966064 0.7496323 1.8216778e-38
0.54815149 -0.18526103 0.74501848 1.8216778e-38
0.55034024 -0.18276928 0.74952036 1.8216778e-38
0.54919553 -0.17805175 0.74353975 1.8216778e-38
0.55157697 -0.17404146 0.74599183 1.8216778e-38
0.55610764 -0.16528633 0.74450427 1.8216778e-38
0.56091154 -0.16100037 0.74404639 1.8216778e-38
0.5598731 -0.15958701 0.74985522 1.8216778e-38
0.56350207 -0.15701097 0.74513167 1.8216778e-38
0.53688663 -0.33303225 0.75539792 1.8216778e-38
0.54353529 -0.33323926 0.75867039 1.8216778e-38
0.55600935 -0.33092168 0.7558406 1.8216778e-38
0.56345105 -0.33236325 0.7503112 1.8216778e-38
0.52984279 -0.32235226 0.75117564 1.8216778e-38
0.53465116 -0.32474217 0.75503743 1.8216778e-38
0.5446915 -0.32517591 0.75844479 1.8216778e-38
0.5550372 -0.32454672 0.75642586 1.8216778e-38
0.56216073 -0.3239406 0.75407398 1.8216778e-38
0.52993578 -0.31875032 0.7510621 1.8216778e-38
0.53385186 -0.31468233 0.75549018 1.8216778e-38
0.54461884 -0.31480703 0.75894284 1.8216778e-38
0.55506927 -0.31523883 0.75785303 1.8216778e-38
0.5638209 -0.31468931 0.75539988 1.8216778e-38
0.57118243 -0.31490582 0.75064766 1.8216778e-38
0.51789546 -0.30898559 0.75029784 1.8216778e-38
0.53410482 -0.30515534 0.75605738 1.8216778e-38
0.5441168 -0.30817696 0.75973833 1.8216778e-38
0.5553205 -0.3057915 0.75919998 1.8216778e-38
0.5645352 -0.30460477 0.75670385 1.8216778e-38
0.57219416 -0.30392948 0.7529313 1.8216778e-38
0.53475469 -0.29510927 0.75557554 1.8216778e-38
0.55670321 -0.29518968 0.75927585 1.8216778e-38
0.56476033 -0.29492262 0.75683528 1.8216778e-38
0.57232904 -0.29460731 0.75391471 1.8216778e-38
0.5365271 -0.28508413 0.75518638 1.8216778e-38
0.54094762 -0.28251302 0.75917256 1.8216778e-38
0.55565643 -0.28457212 0.75926483 1.8216778e-38
0.56483769 -0.28502825 0.75670427 1.8216778e-38
0.57316571 -0.28444961 0.75392538 1.8216778e-38
0.52639478 -0.27354765 0.75905764 1.8216778e-38
0.53741837 -0.27455714 0.75439143 1.8216778e-38
0.54251832 -0.27383819 0.75900441 1.8216778e-38
0.55476302 -0.27497196 0.75916559 1.8216778e-38
0.56477004 -0.27505231 0.7567398 1.8216778e-38
0.57384044 -0.27450976 0.75384778 1.8216778e-38
0.53793019 -0.2648747 0.75325328 1.8216778e-38
0.54205519 -0.26442912 0.75846922 1.8216778e-38
0.55492592 -0.26516351 0.75902343 1.8216778e-38
0.56459183 -0.26500881 0.75689602 1.8216778e-38
0.57466459 -0.26489711 0.75357699 1.8216778e-38
0.53856856 -0.25519675 0.75255054 1.8216778e-38
0.54312527 -0.25438899 0.7580741 1.8216778e-38
0.55598783 -0.25541431 0.75900286 1.8216778e-38
0.56476998 -0.25522187 0.75686824 1.8216778e-38
0.5741117 -0.25470304 0.75432134 1.8216778e-38
0.58145988 -0.25363773 0.75151289 1.8216778e-38
0.53964156 -0.24690005 0.75142759 1.8216778e-38
0.54341948 -0.24451888 0.7569164 1.8216778e-38
0.55707031 -0.24513116 0.75937682 1.8216778e-38
0.56435269 -0.24549557 0.75744152 1.8216778e-38
0.57450527 -0.24521767 0.75480586 1.8216778e-38
0.58182794 -0.24474269 0.75242621 1.8216778e-38
0.544734 -0.23482394 0.75629908 1.8216778e-38
0.55616254 -0.23571502 0.75982064 1.8216778e-38
0.56544679 -0.23516907 0.75827646 1.8216778e-38
0.57532722 -0.23495308 0.75556171 1.8216778e-38
0.58226722 -0.23514895 0.75330842 1.8216778e-38
0.54631251 -0.22494681 0.75554842 1.8216778e-38
0.55261844 -0.2234699 0.75975335 1.8216778e-38
0.56624949 -0.22593109 0.75913864 1.8216778e-38
0.57459033 -0.22503535 0.75697708 1.8216778e-38
0.58361185 -0.22371979 0.75364685 1.8216778e-38
0.54735172 -0.21484298 0.75417566 1.8216778e-38
0.55237192 -0.21575287 0.75922054 1.8216778e-38
0.56875545 -0.21567453 0.75962228 1.8216778e-38
0.57496279 -0.21483672 0.75801528 1.8216778e-38
0.58313119 -0.21498497 0.75507796 1.8216778e-38
0.53711295 -0.20575057 0.75983506 1.8216778e-38
0.54837984 -0.20494765 0.75383115 1.8216778e-38
0.55167818 -0.20367222 0.75838172 1.8216778e-38
0.57521379 -0.20513655 0.75854391 1.8216778e-38
0.58390015 -0.20509586 0.75573814 1.8216778e-38
0.54892337 -0.19537708 0.75247896 1.8216778e-38
0.55176991 -0.19452122 0.75755161 1.8216778e-38
0.57596421 -0.19543132 0.75851476 1.8216778e-38
0.58486235 -0.19472802 0.75578046 1.8216778e-38
0.5900293 -0.19953291 0.75252444 1.8216778e-38
0.54956567 -0.18844338 0.75043261 1.8216778e-38
0.55278474 -0.18476477 0.75564796 1.8216778e-38
0.57634777 -0.18464006 0.75829452 1.8216778e-38
0.58578867 -0.18510793 0.75497335 1.8216778e-38
0.55515975 -0.17465892 0.75521642 1.8216778e-38
0.56926703 -0.17169435 0.75961167 1.8216778e-38
0.57449251 -0.17506894 0.75829899 1.8216778e-38
0.58432269 -0.17523703 0.75485247 1.8216778e-38
0.59006315 -0.17484395 0.75248754 1.8216778e-38
0.55695522 -0.1656206 0.75406617 1.8216778e-38
0.56495982 -0.16446616 0.75725394 1.8216778e-38
0.57423353 -0.16467485 0.75737184 1.8216778e-38
0.58216602 -0.16589558 0.75546598 1.8216778e-38
0.5653519 -0.15832093 0.75182337 1.8216778e-38
0.57411379 -0.15848589 0.75419152 1.8216778e-38
0.5484485 -0.3329193 0.7602585 1.8216778e-38
0.55042899 -0.33191755 0.76077724 1.8216778e-38
0.54899693 -0.32867831 0.76018441 1.8216778e-38
0.55069309 -0.32986981 0.76047182 1.8216778e-38
0.5394218 -0.30220214 0.76012826 1.8216778e-38
0.54522759 -0.30361214 0.7604835 1.8216778e-38
0.55142069 -0.30220315 0.76038259 1.8216778e-38
0.53836799 -0.29512936 0.76228875 1.8216778e-38
0.54437143 -0.2948842 0.7610088 1.8216778e-38
0.55156916 -0.29484922 0.76067364 1.8216778e-38
0.54496825 -0.28518182 0.76080012 1.8216778e-38
0.551328 -0.28675401 0.76030183 1.8216778e-38
0.5457601 -0.27539435 0.7604419 1.8216778e-38
0.57794029 -0.27571344 0.76456237 1.8216778e-38
0.54694259 -0.26536047 0.76044726 1.8216778e-38
0.55105639 -0.26042807 0.76005161 1.8216778e-38
0.54825556 -0.25609273 0.76037002 1.8216778e-38
0.55102777 -0.25440761 0.76040727 1.8216778e-38
0.53604931 -0.24212599 0.76730829 1.8216778e-38
0.54909992 -0.24660917 0.76006484 1.8216778e-38
0.55204266 -0.24476705 0.76041621 1.8216778e-38
0.58031243 -0.24977559 0.76222968 1.8216778e-38
0.55436832 -0.23486114 0.76034307 1.8216778e-38
0.55651689 -0.22587565 0.760194 1.8216778e-38
0.56164008 -0.22439153 0.76032263 1.8216778e-38
0.55678254 -0.2135655 0.76046491 1.8216778e-38
0.56336504 -0.21495651 0.76057565 1.8216778e-38
0.54278928 -0.20165417 0.76210648 1.8216778e-38
0.55619115 -0.2050609 0.76119506 1.8216778e-38
0.56521749 -0.20515379 0.76074159 1.8216778e-38
0.55649388 -0.19498286 0.76181632 1.8216778e-38
0.56477505 -0.19519556 0.76132631 1.8216778e-38
0.57085735 -0.19376996 0.76008695 1.8216778e-38
0.55728221 -0.18558906 0.76151294 1.8216778e-38
0.5643698 -0.1849499 0.76169902 1.8216778e-38
0.57072216 -0.18617463 0.76023769 1.8216778e-38
0.55884296 -0.17600162 0.76098907 1.8216778e-38
0.56450874 -0.17527577 0.7610935 1.8216778e-38
0.56378281 -0.16917156 0.76014858 1.8216778e-38
0.57390922 -0.1591204 0.76280874 1.8216778e-38
0.52963018 -0.080780528 0.62737423 2.177557e-38
0.53088474 -0.081841834 0.62553704 2.177557e-38
0.51896203 -0.07042788 0.62491262 2.177557e-38
0.52428323 -0.075644314 0.62543601 2.177557e-38
0.50881726 -0.060098343 0.62474549 2.177557e-38
0.51369286 -0.065393321 0.62532508 2.177557e-38
0.50459456 -0.05475802 0.62577379 2.177557e-38
0.49792299 -0.042831592 0.62657261 2.177557e-38
0.50094539 -0.047951031 0.62460136 2.177557e-38
0.49763456 -0.036622513 0.62629914 2.177557e-38
0.50206131 -0.032529172 0.62381548 2.177557e-38
0.50713325 -0.027089834 0.62550247 2.177557e-38
0.51258576 -0.022128148 0.62493551 2.177557e-38
0.51793844 -0.017545115 0.62503862 2.177557e-38
0.52323353 -0.013008475 0.62473524 2.177557e-38
0.52804697 -0.0087570446 0.62548941 2.177557e-38
0.53456581 -0.00322532 0.62522501 2.177557e-38
0.53937751 0.0010456076 0.62628937 2.177557e-38
0.54452133 0.0056761177 0.6251716 2.177557e-38
0.55486327 0.015046267 0.6251421 2.177557e-38
0.56006789 0.019506872 0.62498873 2.177557e-38
0.5658896 0.024813019 0.62586564 2.177557e-38
0.57102937 0.029546043 0.62479687 2.177557e-38
0.57599151 0.034102239 0.62578309 2.177557e-38
0.58263338 0.038927831 0.62447113 2.177557e-38
0.58821386 0.04211003 0.6249277 2.177557e-38
0.59222889 0.044173811 0.62427783 2.177557e-38
0.52925056 -0.080484994 0.63071924 2.177557e-38
0.53286868 -0.081628792 0.63182604 2.177557e-38
0.51948005 -0.071421258 0.63393193 2.177557e-38
0.52496994 -0.076077335 0.63355267 2.177557e-38
0.50971007 -0.061021816 0.63600385 2.177557e-38
0.51424098 -0.065880068 0.63494927 2.177557e-38
0.50512695 -0.055250537 0.63504881 2.177557e-38
0.49857876 -0.04350172 0.63464773 2.177557e-38
0.50109017 -0.048222035 0.63516492 2.177557e-38
0.49740601 -0.03687381 0.6354689 2.177557e-38
0.50268173 -0.031977687 0.63507217 2.177557e-38
0.5069626 -0.027283853 0.63498467 2.177557e-38
0.51293635 -0.022054423 0.63514537 2.177557e-38
0.51748133 -0.018105473 0.63442248 2.177557e-38
0.5231083 -0.013230546 0.6341424 2.177557e-38
0.5285387 -0.0085565448 0.63452488 2.177557e-38
0.53407544 -0.0038412833 0.63483191 2.177557e-38
0.53865349 0.00011760695 0.63518488 2.177557e-38
0.54481471 0.0057120561 0.63475108 2.177557e-38
0.55480623 0.014717652 0.63452595 2.177557e-38
0.56034505 0.019525321 0.6352042 2.177557e-38
0.56558073 0.024198161 0.63511187 2.177557e-38
0.57127452 0.029495442 0.63412631 2.177557e-38
0.57614517 0.03370519 0.63448018 2.177557e-38
0.58238029 0.038554814 0.63593179 2.177557e-38
0.58688509 0.042118788 0.63583213 2.177557e-38
0.59190392 0.045677621 0.63568842 2.177557e-38
0.52964026 -0.080749243 0.64800936 2.177557e-38
0.53314984 -0.083274432 0.64593589 2.177557e-38
0.51846206 -0.070534199 0.64506531 2.177557e-38
0.52399373 -0.075476468 0.64365995 2.177557e-38
0.50973862 -0.060487829 0.64423537 2.177557e-38
0.51405472 -0.065492354 0.6447022 2.177557e-38
0.50573421 -0.054997135 0.64412141 2.177557e-38
0.49876723 -0.042715088 0.64532006 2.177557e-38
0.50162226 -0.047185939 0.6425249 2.177557e-38
0.49818122 -0.037293684 0.64538789 2.177557e-38
0.50255436 -0.032461837 0.64582372 2.177557e-38
0.5073449 -0.027466632 0.64537853 2.177557e-38
0.51231402 -0.022816731 0.64589834 2.177557e-38
0.51741177 -0.018306326 0.64478308 2.177557e-38
0.52351522 -0.012958491 0.64455628 2.177557e-38
0.5287497 -0.0083103562 0.64520156 2.177557e-38
0.53380877 -0.0038582049 0.6451959 2.177557e-38
0.53849798 0.00028451098 0.64498621 2.177557e-38
0.54494876 0.0061292769 0.64499778 2.177557e-38
0.55334896 0.0050122305 0.64498377 2.177557e-38
0.55483228 0.015033194 0.64515477 2.177557e-38
0.56004876 0.019539366 0.64243472 2.177557e-38
0.56580776 0.024746507 0.64507127 2.177557e-38
0.57105243 0.029431788 0.64529276 2.177557e-38
0.58028436 0.028563235 0.64771426 2.177557e-38
0.57548702 0.033194173 0.64485198 2.177557e-38
0.58151245 0.038641073 0.64641875 2.177557e-38
0.58686233 0.042894363 0.64623767 2.177557e-38
0.59122729 0.046323277 0.64602178 2.177557e-38
0.53346682 -0.082386397 0.65161371 2.177557e-38
0.51911902 -0.071438372 0.6549527 2.177557e-38
0.52348465 -0.075606599 0.65418822 2.177557e-38
0.50994176 -0.061192647 0.65751028 2.177557e-38
0.51402164 -0.065801807 0.65530431 2.177557e-38
0.50490338 -0.055328868 0.65522563 2.177557e-38
0.49835119 -0.044396523 0.65525126 2.177557e-38
0.49873638 -0.036887493 0.6518445 2.177557e-38
0.50299793 -0.034805451 0.65416044 2.177557e-38
0.50807655 -0.027419802 0.65562707 2.177557e-38
0.51261485 -0.022507623 0.65495706 2.177557e-38
0.51807964 -0.018036883 0.65403306 2.177557e-38
0.52391845 -0.012930954 0.65449023 2.177557e-38
0.52872276 -0.0083286809 0.65559262 2.177557e-38
0.53382027 -0.0034965381 0.65460044 2.177557e-38
0.53893119 0.00124582 0.65516001 2.177557e-38
0.54476303 0.0064832778 0.65531731 2.177557e-38
0.55516094 0.015708541 0.65487188 2.177557e-38
0.56475443 0.024164069 0.65511179 2.177557e-38
0.57057679 0.029373163 0.65528625 2.177557e-38
0.57612514 0.03434895 0.65516704 2.177557e-38
0.58142167 0.039034132 0.65453875 2.177557e-38
0.58640146 0.043392237 0.65493053 2.177557e-38
0.52893603 -0.081289336 0.66504359 2.177557e-38
0.53139091 -0.083688639 0.6655969 2.177557e-38
0.51899868 -0.071017712 0.66579068 2.177557e-38
0.52383214 -0.075755663 0.66445786 2.177557e-38
0.50958109 -0.060689587 0.66470474 2.177557e-38
0.51412672 -0.065730013 0.66518641 2.177557e-38
0.50430983 -0.054725785 0.66482556 2.177557e-38
0.49812606 -0.045063067 0.66424143 2.177557e-38
0.50049371 -0.046581466 0.66778183 2.177557e-38
0.49852753 -0.037238564 0.66647142 2.177557e-38
0.50217545 -0.031496704 0.66699207 2.177557e-38
0.50661922 -0.027202589 0.6661101 2.177557e-38
0.51258671 -0.02217477 0.66435224 2.177557e-38
0.5177058 -0.017678546 0.66498107 2.177557e-38
0.52330834 -0.012607309 0.66537279 2.177557e-38
0.52870125 -0.0077345902 0.66480476 2.177557e-38
0.53371209 -0.0032348114 0.66502613 2.177557e-38
0.5387482 0.0012991958 0.66526645 2.177557e-38
0.54456913 0.0065571028 0.66443485 2.177557e-38
0.54845709 0.010032187 0.66603541 2.177557e-38
0.55488068 0.01558596 0.66536182 2.177557e-38
0.56521875 0.024704814 0.66446835 2.177557e-38
0.57024556 0.029317304 0.66493946 2.177557e-38
0.57555509 0.034158409 0.66540909 2.177557e-38
0.58147371 0.039212815 0.66631269 2.177557e-38
0.58655596 0.042964242 0.66515315 2.177557e-38
0.59288204 0.045552611 0.66771775 2.177557e-38
0.52892941 -0.081226043 0.67378694 2.177557e-38
0.53226459 -0.083829306 0.67485315 2.177557e-38
0.5190866 -0.071223646 0.67354673 2.177557e-38
0.52400637 -0.076416947 0.67546815 2.177557e-38
0.50876987 -0.060116384 0.67247248 2.177557e-38
0.51382232 -0.065600902 0.67516398 2.177557e-38
0.50427026 -0.054858889 0.6751225 2.177557e-38
0.49694484 -0.04449603 0.67685592 2.177557e-38
0.4985806 -0.038010743 0.67409068 2.177557e-38
0.50262105 -0.033165056 0.6743294 2.177557e-38
0.50737935 -0.027098056 0.6737777 2.177557e-38
0.51275021 -0.021817287 0.67464519 2.177557e-38
0.51765126 -0.017342336 0.67555779 2.177557e-38
0.5227741 -0.012736462 0.67465961 2.177557e-38
0.52767503 -0.0083672246 0.67464632 2.177557e-38
0.53359425 -0.0030216856 0.67564332 2.177557e-38
0.53884351 0.0016713749 0.67446917 2.177557e-38
0.54378837 0.0062998389 0.67461246 2.177557e-38
0.54881006 0.010652549 0.67640561 2.177557e-38
0.55488676 0.015865423 0.67469805 2.177557e-38
0.56471193 0.02441426 0.67465866 2.177557e-38
0.57017612 0.02925843 0.67541403 2.177557e-38
0.5613085 0.035921749 0.67358792 2.177557e-38
0.5753215 0.034186807 0.67498094 2.177557e-38
0.58061951 0.039068989 0.67643994 2.177557e-38
0.58326948 0.041522741 0.67828596 2.177557e-38
0.52877522 -0.081011385 0.68628204 2.177557e-38
0.53314537 -0.083746962 0.68653083 2.177557e-38
0.51827729 -0.071278162 0.68527418 2.177557e-38
0.52355683 -0.076223381 0.68476325 2.177557e-38
0.50899255 -0.060812138 0.68512595 2.177557e-38
0.51320797 -0.065660402 0.68564659 2.177557e-38
0.50443441 -0.055185586 0.68514836 2.177557e-38
0.49774298 -0.044277024 0.68376929 2.177557e-38
0.50077659 -0.048621476 0.68564361 2.177557e-38
0.49785262 -0.037036695 0.68708789 2.177557e-38
0.50231862 -0.032302774 0.68575323 2.177557e-38
0.50754797 -0.026555073 0.68523902 2.177557e-38
0.51239759 -0.02176127 0.68446547 2.177557e-38
0.51700693 -0.01757998 0.68588978 2.177557e-38
0.52255994 -0.01261808 0.68425256 2.177557e-38
0.5274983 -0.0081074806 0.68520004 2.177557e-38
0.53339463 -0.0028334192 0.68492174 2.177557e-38
0.53851539 0.001725513 0.68446583 2.177557e-38
0.54362357 0.0063494104 0.68537074 2.177557e-38
0.548814 0.01099139 0.6849494 2.177557e-38
0.55507791 0.016468627 0.68448025 2.177557e-38
0.56512529 0.025020447 0.68543041 2.177557e-38
0.57001227 0.0292063 0.68457818 2.177557e-38
0.57562095 0.034337215 0.68477845 2.177557e-38
0.5805375 0.038950332 0.68546331 2.177557e-38
0.58558649 0.043127082 0.6853283 2.177557e-38
0.53588378 -0.082478315 0.69399637 2.177557e-38
0.54133153 -0.082356133 0.69845009 2.177557e-38
0.51870733 -0.071355149 0.6942839 2.177557e-38
0.52416915 -0.075724542 0.6949808 2.177557e-38
0.50911075 -0.060228154 0.69389218 2.177557e-38
0.51417518 -0.065393195 0.69608569 2.177557e-38
0.55777913 -0.066485122 0.69990611 2.177557e-38
0.50468236 -0.054832868 0.69527632 2.177557e-38
0.51047653 -0.059943587 0.69956827 2.177557e-38
0.49786147 -0.044217657 0.69582945 2.177557e-38
0.50011063 -0.041350313 0.69888783 2.177557e-38
0.55997288 -0.047400445 0.6998204 2.177557e-38
0.56641459 -0.049376346 0.6962899 2.177557e-38
0.49882814 -0.03856064 0.69366902 2.177557e-38
0.50260413 -0.034621779 0.69576824 2.177557e-38
0.50750506 -0.027529724 0.69522661 2.177557e-38
0.51226962 -0.022716369 0.69590545 2.177557e-38
0.51749301 -0.017732583 0.69499433 2.177557e-38
0.52323437 -0.012748837 0.69585246 2.177557e-38
0.5279054 -0.008345156 0.69528389 2.177557e-38
0.53366679 -0.0033597914 0.69576913 2.177557e-38
0.53879642 0.0018249452 0.69475198 2.177557e-38
0.54457444 0.0058661285 0.69640195 2.177557e-38
0.54882056 0.010730675 0.69343197 2.177557e-38
0.55521178 0.015221189 0.69580781 2.177557e-38
0.56098771 0.019248961 0.69837904 2.177557e-38
0.56555396 0.024084996 0.69536859 2.177557e-38
0.57114488 0.028351871 0.69699943 2.177557e-38
0.57601267 0.03340786 0.69448394 2.177557e-38
0.58238441 0.037967265 0.69589329 2.177557e-38
0.58702588 0.042057812 0.69394147 2.177557e-38
0.59137583 0.044507593 0.69587451 2.177557e-38
0.53492266 -0.080988169 0.70180178 2.177557e-38
0.52620691 -0.074345 0.70269698 2.177557e-38
0.53445017 -0.074911848 0.70568341 2.177557e-38
0.54298151 -0.072912022 0.70603412 2.177557e-38
0.55068958 -0.072067 0.70139241 2.177557e-38
0.51752537 -0.063585497 0.70223743 2.177557e-38
0.52453077 -0.065345235 0.70528191 2.177557e-38
0.53514856 -0.06490206 0.7066232 2.177557e-38
0.54414243 -0.064388216 0.70693344 2.177557e-38
0.55423808 -0.064270712 0.70377958 2.177557e-38
0.5615356 -0.061480224 0.70265806 2.177557e-38
0.50675809 -0.053094041 0.70321727 2.177557e-38
0.51421189 -0.055386078 0.70560795 2.177557e-38
0.5250333 -0.054828215 0.70640194 2.177557e-38
0.53533435 -0.055057269 0.70607913 2.177557e-38
0.54537177 -0.055179447 0.70627499 2.177557e-38
0.55477452 -0.054236282 0.70688927 2.177557e-38
0.56404191 -0.054183628 0.70573419 2.177557e-38
0.57244349 -0.052350771 0.70285821 2.177557e-38
0.49935079 -0.046388198 0.7012099 2.177557e-38
0.50455254 -0.044986196 0.70502239 2.177557e-38
0.51483935 -0.044639777 0.70657057 2.177557e-38
0.52482182 -0.04525144 0.70575964 2.177557e-38
0.53548235 -0.044784814 0.70581657 2.177557e-38
0.54527372 -0.045083284 0.70580083 2.177557e-38
0.55480337 -0.044954363 0.70634574 2.177557e-38
0.56454504 -0.045055747 0.70667547 2.177557e-38
0.57396716 -0.043905765 0.70594192 2.177557e-38
0.58232224 -0.042584624 0.70328784 2.177557e-38
0.50615156 -0.03601696 0.70382893 2.177557e-38
0.51524067 -0.034685668 0.70529866 2.177557e-38
0.52488738 -0.034846246 0.70506781 2.177557e-38
0.53486109 -0.035101198 0.70535904 2.177557e-38
0.5453288 -0.03506548 0.7057308 2.177557e-38
0.5549531 -0.035025164 0.70614427 2.177557e-38
0.56441569 -0.035054002 0.70636153 2.177557e-38
0.57468963 -0.03490464 0.70629901 2.177557e-38
0.58401108 -0.034647789 0.70591295 2.177557e-38
0.59196192 -0.031793218 0.70461029 2.177557e-38
0.50857961 -0.028862253 0.70110267 2.177557e-38
0.51513791 -0.025781678 0.70277554 2.177557e-38
0.52461898 -0.02501503 0.70418578 2.177557e-38
0.53510869 -0.02486141 0.70553088 2.177557e-38
0.54502445 -0.02501408 0.70611793 2.177557e-38
0.55442142 -0.024949038 0.70635444 2.177557e-38
0.56454349 -0.025013775 0.70634943 2.177557e-38
0.57475048 -0.025298389 0.70633441 2.177557e-38
0.58486825 -0.025026115 0.70641845 2.177557e-38
0.59394681 -0.024025515 0.70618141 2.177557e-38
0.60201669 -0.022886127 0.70358109 2.177557e-38
0.51883423 -0.019236084 0.70071018 2.177557e-38
0.52587217 -0.01625213 0.70227313 2.177557e-38
0.53492069 -0.014910085 0.70447594 2.177557e-38
0.54486537 -0.01486599 0.70608127 2.177557e-38
0.55448735 -0.0152849 0.70650268 2.177557e-38
0.56447172 -0.014822691 0.70643759 2.177557e-38
0.57448155 -0.014996639 0.70640492 2.177557e-38
0.58482385 -0.014661078 0.70647079 2.177557e-38
0.59483534 -0.015237379 0.70644337 2.177557e-38
0.60480839 -0.014506539 0.70495796 2.177557e-38
0.61423182 -0.013019633 0.70303375 2.177557e-38
0.62041134 -0.010105614 0.70236623 2.177557e-38
0.53620476 -0.0063868831 0.70208657 2.177557e-38
0.54476714 -0.0047929124 0.70463562 2.177557e-38
0.55443412 -0.0051844534 0.70656878 2.177557e-38
0.56443083 -0.0046356712 0.70648819 2.177557e-38
0.57477081 -0.004875395 0.70620161 2.177557e-38
0.5851469 -0.0051123877 0.70608914 2.177557e-38
0.59558618 -0.005348051 0.7061165 2.177557e-38
0.60572368 -0.0055925273 0.70547032 2.177557e-38
0.61497653 -0.0044739814 0.70559043 2.177557e-38
0.62272489 -0.0039667166 0.70514524 2.177557e-38
0.54664779 0.0031134859 0.70231855 2.177557e-38
0.55465841 0.0051613008 0.70475477 2.177557e-38
0.56451774 0.0047629178 0.70638186 2.177557e-38
0.57498032 0.0046036518 0.70594949 2.177557e-38
0.58556992 0.0046265959 0.70574796 2.177557e-38
0.59493959 0.0051113078 0.70563871 2.177557e-38
0.60423559 0.0049850866 0.7059474 2.177557e-38
0.61432946 0.0056007355 0.70703769 2.177557e-38
0.62156886 0.0040527117 0.70703304 2.177557e-38
0.55706781 0.011635263 0.70179307 2.177557e-38
0.56503987 0.015150362 0.70405978 2.177557e-38
0.57545018 0.014878215 0.70538324 2.177557e-38
0.58545119 0.014818215 0.70543152 2.177557e-38
0.5949797 0.015725205 0.70534784 2.177557e-38
0.60447145 0.01551647 0.70567757 2.177557e-38
0.61418515 0.014922355 0.70588142 2.177557e-38
0.62116981 0.014599575 0.70446682 2.177557e-38
0.56807792 0.022198265 0.70139128 2.177557e-38
0.57483608 0.025172822 0.70319909 2.177557e-38
0.58484942 0.025117602 0.70422256 2.177557e-38
0.59463179 0.025301093 0.70494342 2.177557e-38
0.6044364 0.024702994 0.70469505 2.177557e-38
0.61280519 0.023906985 0.70232314 2.177557e-38
0.57810462 0.031746499 0.70156395 2.177557e-38
0.58560705 0.034670357 0.7027663 2.177557e-38
0.59439421 0.03448524 0.70459509 2.177557e-38
0.6039595 0.032012094 0.70298862 2.177557e-38
0.58841842 0.040464006 0.70097923 2.177557e-38
0.59173042 0.04130451 0.7020095 2.177557e-38
0.53916442 -0.071035653 0.7195617 2.177557e-38
0.52843744 -0.027796311 0.71153778 2.177557e-38
0.54210061 0.0053411592 0.71382576 2.177557e-38
0.58364326 0.012381072 0.7144047 2.177557e-38
0.45439073 0.19796117 0.6285938 2.3232881e-38
0.44704533 0.20647636 0.62671655 2.3232881e-38
0.45141283 0.20159195 0.62649709 2.3232881e-38
0.43863121 0.21849723 0.62624872 2.3232881e-38
0.442368 0.21335371 0.62644058 2.3232881e-38
0.43431604 0.22479419 0.62709171 2.3232881e-38
0.42906305 0.23431139 0.62876195 2.3232881e-38
0.43119514 0.23289157 0.62626404 2.3232881e-38
0.45527655 0.19719179 0.6351428 2.3232881e-38
0.46241212 0.19447114 0.63505965 2.3232881e-38
0.43831828 0.20662393 0.63402557 2.3232881e-38
0.44715756 0.20573494 0.63496208 2.3232881e-38
0.45077497 0.20083365 0.63505256 2.3232881e-38
0.43865827 0.21832713 0.63430399 2.3232881e-38
0.44229239 0.21327288 0.63491333 2.3232881e-38
0.43396264 0.22492307 0.635423 2.3232881e-38
0.42852569 0.23554313 0.63555276 2.3232881e-38
0.43129459 0.23248044 0.63504952 2.3232881e-38
0.42830977 0.24261932 0.63580614 2.3232881e-38
0.43144584 0.24767751 0.63774687 2.3232881e-38
0.45580769 0.19763882 0.64303613 2.3232881e-38
0.46147713 0.19477031 0.64476764 2.3232881e-38
0.44737038 0.20593591 0.64462721 2.3232881e-38
0.45105505 0.20104358 0.64631271 2.3232881e-38
0.43889171 0.21826249 0.64485794 2.3232881e-38
0.44253793 0.21309449 0.64517945 2.3232881e-38
0.43414599 0.22487499 0.6450907 2.3232881e-38
0.42851374 0.23538584 0.64491493 2.3232881e-38
0.43025702 0.2306971 0.64697593 2.3232881e-38
0.42889982 0.24307206 0.64384747 2.3232881e-38
0.43123892 0.24723464 0.6450097 2.3232881e-38
0.43465433 0.25124592 0.64561111 2.3232881e-38
0.45497999 0.19694348 0.6554926 2.3232881e-38
0.46495917 0.19452138 0.654845 2.3232881e-38
0.47024709 0.19517176 0.65979463 2.3232881e-38
0.44747818 0.20639905 0.65478772 2.3232881e-38
0.45091227 0.20115957 0.65479177 2.3232881e-38
0.43910599 0.21841305 0.65488011 2.3232881e-38
0.44250181 0.21370956 0.65479624 2.3232881e-38
0.43444368 0.22479539 0.6546647 2.3232881e-38
0.42901713 0.23651481 0.65337831 2.3232881e-38
0.43127203 0.23249114 0.65599757 2.3232881e-38
0.42843899 0.24290562 0.65529203 2.3232881e-38
0.4331848 0.24836989 0.65669394 2.3232881e-38
0.43566766 0.25160035 0.65367812 2.3232881e-38
0.45601141 0.19671811 0.66497475 2.3232881e-38
0.46088058 0.19404298 0.66792911 2.3232881e-38
0.44746006 0.20621167 0.66467547 2.3232881e-38
0.45101553 0.20122896 0.66513401 2.3232881e-38
0.43899006 0.21852544 0.66483766 2.3232881e-38
0.4426094 0.21343738 0.66519445 2.3232881e-38
0.43423274 0.22488873 0.66519713 2.3232881e-38
0.42884266 0.23631118 0.66569811 2.3232881e-38
0.43044662 0.23094514 0.6648922 2.3232881e-38
0.42911363 0.2424053 0.66518354 2.3232881e-38
0.43174401 0.24710494 0.6638996 2.3232881e-38
0.43679518 0.25267422 0.66487223 2.3232881e-38
0.45567799 0.19701679 0.67526942 2.3232881e-38
0.46410313 0.19410054 0.67352349 2.3232881e-38
0.44737789 0.20633772 0.67504424 2.3232881e-38
0.45108345 0.2014171 0.67502362 2.3232881e-38
0.46507627 0.20074931 0.67945117 2.3232881e-38
0.43811354 0.21789691 0.67493904 2.3232881e-38
0.4426969 0.21366388 0.67461717 2.3232881e-38
0.43435588 0.22513711 0.67500633 2.3232881e-38
0.42970532 0.23564145 0.67293245 2.3232881e-38
0.43052322 0.2334 0.67563236 2.3232881e-38
0.4294208 0.24307367 0.67513871 2.3232881e-38
0.43201819 0.24808776 0.67632693 2.3232881e-38
0.43623647 0.25202897 0.67515171 2.3232881e-38
0.45630786 0.1974925 0.68468934 2.3232881e-38
0.46264964 0.1941999 0.68552768 2.3232881e-38
0.44738147 0.20675445 0.68484497 2.3232881e-38
0.45121458 0.20148008 0.68511176 2.3232881e-38
0.43901157 0.21853431 0.68519402 2.3232881e-38
0.4425053 0.21369362 0.68492264 2.3232881e-38
0.43481767 0.22485375 0.68480229 2.3232881e-38
0.42868677 0.23647259 0.6854403 2.3232881e-38
0.43102917 0.2316376 0.68503797 2.3232881e-38
0.42881727 0.24159953 0.68372482 2.3232881e-38
0.43207264 0.24635357 0.68507433 2.3232881e-38
0.43512028 0.25303465 0.68554485 2.3232881e-38
0.4412027 0.25471619 0.68635118 2.3232881e-38
0.45649186 0.19780336 0.69533825 2.3232881e-38
0.46343571 0.19438291 0.69500643 2.3232881e-38
0.4700684 0.19671415 0.69944346 2.3232881e-38
0.44769159 0.20662381 0.6946125 2.3232881e-38
0.45133722 0.20177858 0.69547755 2.3232881e-38
0.43899795 0.21904401 0.69442815 2.3232881e-38
0.44264179 0.21390988 0.69542968 2.3232881e-38
0.43489283 0.22509766 0.69526851 2.3232881e-38
0.42921069 0.23660928 0.69458246 2.3232881e-38
0.43070289 0.23189066 0.69628978 2.3232881e-38
0.42948604 0.24116859 0.69432366 2.3232881e-38
0.43212295 0.24574995 0.69580406 2.3232881e-38
0.43732366 0.25167078 0.69656116 2.3232881e-38
0.44213301 0.25445092 0.69915593 2.3232881e-38
0.45729294 0.19806549 0.70381373 2.3232881e-38
0.46437284 0.19741763 0.70461398 2.3232881e-38
0.4717811 0.19859551 0.70321786 2.3232881e-38
0.44847116 0.2078108 0.70361263 2.3232881e-38
0.45341742 0.20379947 0.70663738 2.3232881e-38
0.46502376 0.20114018 0.70826125 2.3232881e-38
0.47441217 0.20488617 0.70747906 2.3232881e-38
0.43976775 0.21926545 0.70121926 2.3232881e-38
0.44497848 0.21500142 0.70579183 2.3232881e-38
0.45112774 0.21421179 0.7066108 2.3232881e-38
0.47729638 0.21817589 0.70891553 2.3232881e-38
0.4367511 0.22564226 0.70486432 2.3232881e-38
0.44179413 0.22203191 0.70829576 2.3232881e-38
0.46996546 0.2282235 0.70966333 2.3232881e-38
0.47418219 0.22299288 0.7090922 2.3232881e-38
0.42976475 0.23739861 0.70112658 2.3232881e-38
0.43306366 0.23464353 0.70605934 2.3232881e-38
0.46908522 0.23258087 0.70846486 2.3232881e-38
0.4342438 0.24473763 0.7059378 2.3232881e-38
0.44060224 0.24926436 0.70922458 2.3232881e-38
0.45854759 0.24938118 0.70668757 2.3232881e-38
0.46221495 0.24468894 0.70785254 2.3232881e-38
0.43835115 0.25121465 0.70178008 2.3232881e-38
0.44487152 0.25296167 0.70572215 2.3232881e-38
0.45276815 0.25214663 0.70796263 2.3232881e-38
0.45722806 0.20685039 0.71158463 2.3232881e-38
0.46495831 0.2060502 0.71209437 2.3232881e-38
0.47196084 0.20847778 0.71171349 2.3232881e-38
0.44858536 0.21727914 0.71110618 2.3232881e-38
0.45472094 0.21510781 0.71307075 2.3232881e-38
0.46476561 0.21464226 0.71393538 2.3232881e-38
0.47326744 0.21441434 0.71185511 2.3232881e-38
0.43923888 0.2287087 0.71053392 2.3232881e-38
0.44546866 0.22546753 0.71206576 2.3232881e-38
0.45470262 0.22484398 0.71432328 2.3232881e-38
0.46422461 0.22489406 0.71335644 2.3232881e-38
0.47134671 0.2225071 0.71095657 2.3232881e-38
0.43789536 0.23589611 0.71167195 2.3232881e-38
0.44472939 0.23465511 0.71363991 2.3232881e-38
0.45449406 0.23505923 0.71409941 2.3232881e-38
0.46328706 0.23395534 0.71192062 2.3232881e-38
0.43802491 0.24285716 0.71119267 2.3232881e-38
0.44457853 0.24484764 0.71284753 2.3232881e-38
0.45362443 0.24381679 0.71308601 2.3232881e-38
0.46046716 0.24176207 0.71131146 2.3232881e-38
0.44762731 0.2504566 0.71084982 2.3232881e-38
0.44150203 0.25380445 0.72212565 2.3232881e-38
